ply
format ascii 1.0
comment (C) Hongzhi Wu, Sep 2013.
element vertex 1475
property float x
property float y
property float z
property uchar red
property uchar green
property uchar blue
property uchar alpha
end_header
-1 0.0693075 -0.308878 0 0 0 255 
-1 0.729789 -0.0425733 0 0 0 255 
-1 -0.81579 0.425153 0 0 0 255 
-1 -0.411359 0.418012 0 0 0 255 
-1 0.0217597 -0.305277 0 0 0 255 
-1 -0.639454 -0.252358 0 0 0 255 
-1 -0.203589 -0.899655 0 0 0 255 
-1 -0.918455 -0.892636 0 0 0 255 
-1 -0.995727 -0.128025 0 0 0 255 
-1 -0.784234 0.280862 0 0 0 255 
-1 0.52092 0.644704 0 0 0 255 
-1 0.296243 -0.332865 0 0 0 255 
-1 -0.82519 -0.378765 0 0 0 255 
-1 0.104221 0.217383 0 0 0 255 
-1 -0.991943 -0.0135807 0 0 0 255 
-1 -0.486801 -0.555895 0 0 0 255 
-1 0.704154 -0.369549 0 0 0 255 
-1 0.621876 -0.87817 0 0 0 255 
-1 0.21543 0.586596 0 0 0 255 
-1 0.966735 -0.185217 0 0 0 255 
-1 0.704642 0.3408 0 0 0 255 
-1 0.665761 0.171361 0 0 0 255 
-1 0.775506 0.583544 0 0 0 255 
-1 -0.428388 0.254311 0 0 0 255 
-1 -0.13358 -0.711966 0 0 0 255 
-1 -0.860897 -0.710379 0 0 0 255 
-1 -0.147252 -0.527024 0 0 0 255 
-1 0.997742 0.363567 0 0 0 255 
-1 -0.387066 0.886837 0 0 0 255 
-1 -0.588916 -0.980834 0 0 0 255 
-1 -0.198828 -0.614551 0 0 0 255 
-1 0.154515 0.665151 0 0 0 255 
-1 -0.411664 -0.782891 0 0 0 255 
-1 0.0918302 0.444441 0 0 0 255 
-1 0.934874 0.0242622 0 0 0 255 
-1 0.14835 -0.0184637 0 0 0 255 
-1 0.289651 -0.621082 0 0 0 255 
-1 -0.312784 -0.521836 0 0 0 255 
-1 -0.27543 -0.674368 0 0 0 255 
-1 0.774957 0.207678 0 0 0 255 
-1 0.655873 -0.0259713 0 0 0 255 
-1 0.695059 0.823664 0 0 0 255 
-1 0.732597 0.904538 0 0 0 255 
-1 0.609546 0.291055 0 0 0 255 
-1 -0.573473 0.280801 0 0 0 255 
-1 -0.295572 -0.0748619 0 0 0 255 
-1 -0.401654 0.347514 0 0 0 255 
-1 -0.243141 0.230445 0 0 0 255 
-1 0.0826136 0.681692 0 0 0 255 
-1 -0.937498 0.218909 0 0 0 255 
-1 -0.612842 -0.583483 0 0 0 255 
-1 -0.675527 0.907834 0 0 0 255 
-1 0.181494 -0.0921354 0 0 0 255 
-1 0.669362 -0.00210578 0 0 0 255 
-1 -0.384869 0.224708 0 0 0 255 
-1 0.680349 0.563646 0 0 0 255 
-1 0.899289 -0.337565 0 0 0 255 
-1 -0.535447 0.202063 0 0 0 255 
-1 0.261757 0.447554 0 0 0 255 
-1 0.558885 -0.269875 0 0 0 255 
-1 -0.407514 0.185156 0 0 0 255 
-1 -0.832209 -0.553209 0 0 0 255 
-1 0.0839564 -0.368267 0 0 0 255 
-1 -0.923276 -0.566698 0 0 0 255 
-1 -0.807855 -0.679067 0 0 0 255 
-1 -0.16422 -0.397687 0 0 0 255 
-1 -0.457076 -0.335734 0 0 0 255 
-1 0.721305 0.477706 0 0 0 255 
-1 -0.758293 0.655202 0 0 0 255 
-1 -0.202368 0.236305 0 0 0 255 
-1 -0.343059 -0.536119 0 0 0 255 
-1 -0.625721 0.625233 0 0 0 255 
-1 0.392804 -0.722953 0 0 0 255 
-1 -0.467208 -0.767693 0 0 0 255 
-1 -0.90759 0.958251 0 0 0 255 
-1 -0.566698 -0.519089 0 0 0 255 
-1 -0.830317 0.735649 0 0 0 255 
-1 0.0514237 -0.103488 0 0 0 255 
-1 0.80578 0.407819 0 0 0 255 
-1 0.093173 -0.100986 0 0 0 255 
-1 0.816645 -0.251625 0 0 0 255 
-1 -0.657765 -0.134983 0 0 0 255 
-1 0.548448 0.141087 0 0 0 255 
-1 0.850093 -0.280129 0 0 0 255 
-1 -0.960936 0.227393 0 0 0 255 
-1 -0.550829 0.12479 0 0 0 255 
-1 0.548143 0.761589 0 0 0 255 
-1 -0.709037 0.652394 0 0 0 255 
-1 0.452254 -0.816706 0 0 0 255 
-1 -0.261391 -0.539964 0 0 0 255 
-1 0.677541 0.890133 0 0 0 255 
-1 -0.769585 0.113193 0 0 0 255 
-1 0.549059 0.0719932 0 0 0 255 
-1 0.921628 0.637318 0 0 0 255 
-1 0.424604 0.505295 0 0 0 255 
-1 0.257912 0.834956 0 0 0 255 
-1 -0.999756 0.143712 0 0 0 255 
-1 -0.608325 -0.359416 0 0 0 255 
-1 -0.0242012 0.943297 0 0 0 255 
-1 0.757317 0.0574053 0 0 0 255 
-1 -0.900876 -0.640126 0 0 0 255 
-1 0.442366 0.270608 0 0 0 255 
-1 -0.275063 -0.378887 0 0 0 255 
-1 -0.537828 -0.887692 0 0 0 255 
-1 -0.837214 -0.562181 0 0 0 255 
-1 -0.0751061 -0.580615 0 0 0 255 
-1 0.520798 0.544664 0 0 0 255 
-1 -0.39201 -0.784051 0 0 0 255 
-1 0.703543 0.587817 0 0 0 255 
-1 0.911252 -0.666921 0 0 0 255 
-1 -0.0351878 0.663991 0 0 0 255 
-1 0.745293 0.280435 0 0 0 255 
-1 -0.818049 0.503098 0 0 0 255 
-1 0.922605 0.175878 0 0 0 255 
-1 -0.927183 -0.860347 0 0 0 255 
-1 0.274575 0.558092 0 0 0 255 
-1 0.154759 -0.833003 0 0 0 255 
-1 0.286966 -0.793268 0 0 0 255 
-1 0.61211 -0.418744 0 0 0 255 
-1 -0.232704 -0.0707724 0 0 0 255 
-1 0.629383 0.038789 0 0 0 255 
-1 -0.811701 -0.117527 0 0 0 255 
-1 -0.57329 0.320719 0 0 0 255 
-1 0.134007 0.648 0 0 0 255 
-1 0.438154 -0.819391 0 0 0 255 
-1 -0.0303049 -0.801447 0 0 0 255 
-1 0.0638142 0.783868 0 0 0 255 
-1 0.702383 0.356914 0 0 0 255 
-1 -0.55504 0.889035 0 0 0 255 
-1 0.252358 0.581164 0 0 0 255 
-1 0.0131535 -0.978088 0 0 0 255 
-1 0.268593 -0.816034 0 0 0 255 
-1 -0.604358 -0.60802 0 0 0 255 
-1 -0.565783 0.64214 0 0 0 255 
-1 -0.127598 0.465804 0 0 0 255 
-1 -0.816462 -0.265908 0 0 0 255 
-1 0.226234 -0.824458 0 0 0 255 
-1 0.129551 -0.890072 0 0 0 255 
-1 0.750603 0.965026 0 0 0 255 
-1 0.536424 -0.2125 0 0 0 255 
-1 -0.360088 -0.498093 0 0 0 255 
-1 -0.887448 0.249123 0 0 0 255 
-1 0.222449 0.175024 0 0 0 255 
-1 -0.501267 0.517808 0 0 0 255 
-1 -0.232948 -0.319437 0 0 0 255 
-1 -0.672658 -0.920225 0 0 0 255 
-1 -0.853694 0.354228 0 0 0 255 
-1 0.891354 0.042024 0 0 0 255 
-1 -0.281411 0.656972 0 0 0 255 
-1 -0.473189 0.711234 0 0 0 255 
-1 0.657155 0.633595 0 0 0 255 
-1 0.0356151 -0.884762 0 0 0 255 
-1 -0.152806 -0.520798 0 0 0 255 
-1 -0.896786 0.100681 0 0 0 255 
-1 -0.351543 -0.178198 0 0 0 255 
-1 0.953612 0.782342 0 0 0 255 
-1 0.52794 0.206946 0 0 0 255 
-1 0.672048 0.551073 0 0 0 255 
-1 0.0548418 -0.192236 0 0 0 255 
-1 0.976989 0.798578 0 0 0 255 
-1 -0.729301 -0.176977 0 0 0 255 
-1 -0.027131 0.258583 0 0 0 255 
-1 0.247414 0.623402 0 0 0 255 
-1 -0.170141 0.633412 0 0 0 255 
-1 0.977416 0.712943 0 0 0 255 
-1 -0.351176 -0.775628 0 0 0 255 
-1 -0.144322 -0.771233 0 0 0 255 
-1 0.24601 -0.132054 0 0 0 255 
-1 -0.844356 0.272073 0 0 0 255 
-1 0.467696 -0.1583 0 0 0 255 
-1 0.32725 -0.916929 0 0 0 255 
-1 0.183813 -0.200354 0 0 0 255 
-1 0.903256 -0.795099 0 0 0 255 
-1 0.546556 -0.528733 0 0 0 255 
-1 0.538255 0.562609 0 0 0 255 
-1 -0.298196 -0.933409 0 0 0 255 
-1 -0.527207 -0.921873 0 0 0 255 
-1 0.142979 0.317423 0 0 0 255 
-1 -0.232582 -0.71099 0 0 0 255 
-1 0.556383 -0.896115 0 0 0 255 
-1 -0.767144 0.689871 0 0 0 255 
-1 0.575671 0.917844 0 0 0 255 
-1 -0.654164 0.430647 0 0 0 255 
-1 -0.415326 0.244301 0 0 0 255 
-1 0.834712 -0.182287 0 0 0 255 
-1 0.835444 0.558519 0 0 0 255 
-1 -0.705557 0.0384838 0 0 0 255 
-1 -0.0642415 0.276406 0 0 0 255 
-1 -0.601123 -0.0909146 0 0 0 255 
-1 0.450972 0.92761 0 0 0 255 
-1 -0.736686 -0.520066 0 0 0 255 
-1 -0.788934 0.271584 0 0 0 255 
-1 -0.465255 0.27427 0 0 0 255 
-1 0.170873 0.319742 0 0 0 255 
-1 0.083224 0.0332957 0 0 0 255 
-1 0.578234 -0.506088 0 0 0 255 
-1 0.00302133 -0.653432 0 0 0 255 
-1 -0.97589 0.703421 0 0 0 255 
-1 -0.756401 -0.296426 0 0 0 255 
-1 -0.0805383 0.203711 0 0 0 255 
-1 -0.163488 -0.428571 0 0 0 255 
-1 -0.67748 0.96466 0 0 0 255 
-1 0.608631 -0.674856 0 0 0 255 
-1 -0.921934 0.168859 0 0 0 255 
-1 0.730155 -0.513596 0 0 0 255 
-1 0.166723 0.638661 0 0 0 255 
-1 -0.315958 0.010712 0 0 0 255 
-1 0.265114 -0.305033 0 0 0 255 
-1 -0.487472 -0.444197 0 0 0 255 
-1 -0.981567 -0.558031 0 0 0 255 
-1 0.747307 -0.989013 0 0 0 255 
-1 -0.31193 0.988342 0 0 0 255 
-1 -0.48735 -0.679128 0 0 0 255 
-1 -0.0973846 0.918943 0 0 0 255 
-1 -0.846736 0.0472121 0 0 0 255 
-1 -0.534288 0.662526 0 0 0 255 
-1 0.633351 0.429731 0 0 0 255 
-1 -0.200598 -0.487777 0 0 0 255 
-1 -0.871151 -0.821833 0 0 0 255 
-1 -0.110324 -0.797052 0 0 0 255 
-1 0.944212 -0.892087 0 0 0 255 
-1 -0.208594 -0.626331 0 0 0 255 
-1 0.367595 0.265725 0 0 0 255 
-1 -0.903317 0.200415 0 0 0 255 
-1 -0.393353 0.6339 0 0 0 255 
-1 0.526658 0.224158 0 0 0 255 
-1 -0.262062 -0.900266 0 0 0 255 
-1 0.213538 -0.833552 0 0 0 255 
-1 -0.0562456 -0.620594 0 0 0 255 
-1 0.560717 0.577746 0 0 0 255 
-1 -0.582507 0.246193 0 0 0 255 
-1 -0.9635 0.74395 0 0 0 255 
-1 0.466536 0.980529 0 0 0 255 
-1 -0.860042 -0.358562 0 0 0 255 
-1 -0.234779 -0.319987 0 0 0 255 
-1 0.309549 0.124119 0 0 0 255 
-1 0.670095 0.198523 0 0 0 255 
-1 -0.010773 0.202857 0 0 0 255 
-1 0.244423 -0.734001 0 0 0 255 
-1 -0.338298 -0.516526 0 0 0 255 
-1 -0.587878 -0.964171 0 0 0 255 
-1 -0.334819 -0.180761 0 0 0 255 
-1 0.709342 0.149632 0 0 0 255 
-1 -0.732536 -0.747673 0 0 0 255 
-1 0.685354 0.667776 0 0 0 255 
-1 -0.96057 0.619251 0 0 0 255 
-1 0.367168 -0.879574 0 0 0 255 
-1 0.29252 -0.971557 0 0 0 255 
-1 0.597156 -0.246803 0 0 0 255 
-1 -0.527757 -0.969237 0 0 0 255 
-1 0.728385 -0.989013 0 0 0 255 
-1 0.186926 -0.0526444 0 0 0 255 
-1 0.369243 0.68688 0 0 0 255 
-1 0.240638 -0.252846 0 0 0 255 
-1 -0.141697 -0.807123 0 0 0 255 
-1 -0.111789 -0.678213 0 0 0 255 
-1 -0.831477 0.35551 0 0 0 255 
-1 0.78283 -0.756218 0 0 0 255 
-1 0.241371 -0.766533 0 0 0 255 
-1 0.997925 -0.635609 0 0 0 255 
-1 -0.416669 0.960387 0 0 0 255 
-1 0.32139 -0.841548 0 0 0 255 
-1 -0.428755 -0.224952 0 0 0 255 
-1 -0.00784326 0.803583 0 0 0 255 
-1 -0.444197 -0.531541 0 0 0 255 
-1 0.428205 0.847163 0 0 0 255 
-1 0.779901 -0.301065 0 0 0 255 
-1 -0.468978 -0.793023 0 0 0 255 
-1 -0.415143 -0.744377 0 0 0 255 
-1 -0.907407 -0.571825 0 0 0 255 
-1 0.616321 -0.362407 0 0 0 255 
-1 -0.0727256 0.82519 0 0 0 255 
-1 -0.98999 0.503159 0 0 0 255 
-1 -0.142918 0.62743 0 0 0 255 
-1 -0.910337 0.896786 0 0 0 255 
-1 0.838008 -0.234352 0 0 0 255 
-1 0.190832 0.910703 0 0 0 255 
-1 0.580432 0.736198 0 0 0 255 
-1 -0.912595 -0.149876 0 0 0 255 
-1 0.241432 -0.686514 0 0 0 255 
-1 0.392682 -0.711417 0 0 0 255 
-1 -0.606494 0.995544 0 0 0 255 
-1 0.482101 0.869442 0 0 0 255 
-1 0.761528 -0.79284 0 0 0 255 
-1 0.192236 -0.408429 0 0 0 255 
-1 0.408612 0.718497 0 0 0 255 
-1 0.038728 -0.148289 0 0 0 255 
-1 0.402509 -0.314859 0 0 0 255 
-1 0.215125 -0.0447096 0 0 0 255 
-1 0.74456 0.463118 0 0 0 255 
-1 -0.564257 -0.592456 0 0 0 255 
-1 -0.243934 0.113681 0 0 0 255 
-1 -0.982116 0.300882 0 0 0 255 
-1 -0.568224 -0.431013 0 0 0 255 
-1 0.711295 -0.228919 0 0 0 255 
-1 0.74395 -0.990112 0 0 0 255 
-1 -0.0726646 -0.932859 0 0 0 255 
-1 -0.241981 -0.630665 0 0 0 255 
-1 -0.551988 0.495651 0 0 0 255 
-1 0.957945 -0.728568 0 0 0 255 
-1 -0.351299 0.634999 0 0 0 255 
-1 -0.381817 0.391217 0 0 0 255 
-1 -0.990844 0.997009 0 0 0 255 
-1 0.660024 -0.57445 0 0 0 255 
-1 0.457015 0.00503555 0 0 0 255 
-1 -0.569445 0.857234 0 0 0 255 
-1 0.136814 -0.993286 0 0 0 255 
-1 0.5056 0.71044 0 0 0 255 
-1 0.781671 0.292215 0 0 0 255 
-1 0.182226 0.799432 0 0 0 255 
-1 -0.773247 0.998474 0 0 0 255 
-1 -0.948973 0.801325 0 0 0 255 
-1 -0.00112918 -0.400983 0 0 0 255 
-1 -0.834773 -0.899777 0 0 0 255 
-1 -0.408307 -0.351543 0 0 0 255 
-1 0.11008 -0.00711081 0 0 0 255 
-1 0.24369 0.830378 0 0 0 255 
-1 -0.0324412 -0.229469 0 0 0 255 
-1 -0.975463 0.395184 0 0 0 255 
-1 -0.981201 0.65215 0 0 0 255 
-1 -0.946593 -0.988281 0 0 0 255 
-1 0.279519 0.779168 0 0 0 255 
-1 -0.0241401 0.15775 0 0 0 255 
-1 -0.12479 -0.247414 0 0 0 255 
-1 -0.343852 -0.325236 0 0 0 255 
-1 0.0798059 -0.254494 0 0 0 255 
-1 -0.343791 0.27781 0 0 0 255 
-1 0.811884 -0.696951 0 0 0 255 
-1 0.716178 0.870724 0 0 0 255 
-1 -0.23722 -0.19187 0 0 0 255 
-1 0.377606 0.746452 0 0 0 255 
-1 -0.632069 0.484054 0 0 0 255 
-1 0.348552 0.376019 0 0 0 255 
-1 0.769402 -0.0188299 0 0 0 255 
-1 -0.554979 -0.221717 0 0 0 255 
-1 -0.979492 0.302774 0 0 0 255 
-1 0.21659 0.651418 0 0 0 255 
-1 0.284585 -0.688223 0 0 0 255 
-1 0.911802 -0.203467 0 0 0 255 
-1 0.938719 0.581286 0 0 0 255 
-1 0.522691 -0.882443 0 0 0 255 
-1 0.564135 -0.84875 0 0 0 255 
-1 0.5103 -0.109958 0 0 0 255 
-1 0.0228584 0.0879238 0 0 0 255 
-1 -0.292703 0.309915 0 0 0 255 
-1 0.452071 0.851314 0 0 0 255 
-1 0.0713218 -0.194372 0 0 0 255 
-1 -0.708365 -0.372967 0 0 0 255 
-1 -0.333293 -0.525925 0 0 0 255 
-1 -0.347514 -0.801325 0 0 0 255 
-1 0.744011 -0.461531 0 0 0 255 
-1 -0.320719 0.897275 0 0 0 255 
-1 0.30314 0.166112 0 0 0 255 
-1 -0.682119 0.901303 0 0 0 255 
-1 -0.67101 -0.418012 0 0 0 255 
-1 -0.694998 0.932066 0 0 0 255 
-1 0.219337 -0.581408 0 0 0 255 
-1 -0.483993 0.436506 0 0 0 255 
-1 -0.962401 -0.0989105 0 0 0 255 
-1 -0.72161 0.935423 0 0 0 255 
-1 -0.629872 -0.96411 0 0 0 255 
-1 -0.86169 0.57622 0 0 0 255 
-1 0.989013 0.690054 0 0 0 255 
-1 0.101474 -0.676382 0 0 0 255 
-1 0.483688 0.580798 0 0 0 255 
-1 0.812372 -0.100375 0 0 0 255 
-1 -0.241737 0.978088 0 0 0 255 
-1 -0.268044 -0.212622 0 0 0 255 
-1 -0.935545 0.614612 0 0 0 255 
-1 0.380535 0.606983 0 0 0 255 
-1 -0.711966 0.145543 0 0 0 255 
-1 -0.631703 0.185217 0 0 0 255 
-1 0.791375 -0.24546 0 0 0 255 
-1 -0.492172 0.946593 0 0 0 255 
-1 0.475509 0.412214 0 0 0 255 
-1 0.0204779 -0.917844 0 0 0 255 
-1 0.121921 0.109287 0 0 0 255 
-1 0.980895 -0.432417 0 0 0 255 
-1 0.747673 -0.639027 0 0 0 255 
-1 -0.0721152 -0.254982 0 0 0 255 
-1 0.916868 0.656056 0 0 0 255 
-1 -0.739372 0.110996 0 0 0 255 
-1 0.937864 0.559496 0 0 0 255 
-1 -0.11185 0.407147 0 0 0 255 
-1 0.89642 -0.87817 0 0 0 255 
-1 -0.147618 -0.648488 0 0 0 255 
-1 -0.224952 -0.658925 0 0 0 255 
-1 0.557848 0.615467 0 0 0 255 
-1 0.741081 -0.0688192 0 0 0 255 
-1 0.0533769 -0.797113 0 0 0 255 
-1 -0.700735 -0.190527 0 0 0 255 
-1 0.788629 0.471908 0 0 0 255 
-1 -0.350566 0.781976 0 0 0 255 
-1 0.642872 -0.101474 0 0 0 255 
-1 -0.484909 0.127781 0 0 0 255 
-1 -0.938597 0.581896 0 0 0 255 
-1 0.165807 -0.58623 0 0 0 255 
-1 -0.924314 0.660756 0 0 0 255 
-1 -0.404096 0.155431 0 0 0 255 
-1 -0.920042 -0.477584 0 0 0 255 
-1 0.0892056 -0.87054 0 0 0 255 
-1 -0.257668 -0.829096 0 0 0 255 
-1 -0.0481887 0.495529 0 0 0 255 
-1 -0.412091 0.642018 0 0 0 255 
-1 0.277688 0.633168 0 0 0 255 
-1 -0.142369 0.152562 0 0 0 255 
-1 0.47264 -0.985473 0 0 0 255 
-1 -0.529832 -0.994812 0 0 0 255 
-1 0.159215 0.747551 0 0 0 255 
-1 0.541307 0.380413 0 0 0 255 
-1 -0.740165 -0.102939 0 0 0 255 
-1 0.202795 0.294534 0 0 0 255 
-1 -0.237892 -0.428022 0 0 0 255 
-1 -0.348003 0.427717 0 0 0 255 
-1 -0.840815 -0.701468 0 0 0 255 
-1 0.712394 0.481246 0 0 0 255 
-1 0.0777917 0.645253 0 0 0 255 
-1 -0.061861 0.4644 0 0 0 255 
-1 0.40611 0.658193 0 0 0 255 
-1 0.708243 0.0786462 0 0 0 255 
-1 0.567553 -0.325968 0 0 0 255 
-1 -0.932737 0.418378 0 0 0 255 
-1 0.697501 -0.266091 0 0 0 255 
-1 -0.449934 -0.210059 0 0 0 255 
-1 -0.373028 0.390667 0 0 0 255 
-1 -0.902829 -0.187231 0 0 0 255 
-1 -0.998718 0.423383 0 0 0 255 
-1 0.713004 -0.637257 0 0 0 255 
-1 0.819391 -0.897824 0 0 0 255 
-1 -0.0494095 -0.408734 0 0 0 255 
-1 0.417463 -0.568102 0 0 0 255 
-1 0.912717 0.463485 0 0 0 255 
-1 0.69158 0.493454 0 0 0 255 
-1 0.456526 -0.755608 0 0 0 255 
-1 0.401471 0.85107 0 0 0 255 
-1 -0.0466018 -0.616321 0 0 0 255 
-1 0.984069 0.246193 0 0 0 255 
-1 -0.47972 -0.450972 0 0 0 255 
-1 -0.335856 0.709403 0 0 0 255 
-1 0.36082 0.39079 0 0 0 255 
-1 -0.951842 -0.96234 0 0 0 255 
-1 0.985473 0.233619 0 0 0 255 
-1 0.0596026 0.558824 0 0 0 255 
-1 0.863033 -0.464156 0 0 0 255 
-1 -0.716849 -0.519822 0 0 0 255 
-1 0.748894 0.881832 0 0 0 255 
-1 0.773919 0.158544 0 0 0 255 
-1 0.781304 -0.268715 0 0 0 255 
-1 -0.595569 0.564806 0 0 0 255 
-1 -0.307108 0.386822 0 0 0 255 
-1 -0.872921 0.318827 0 0 0 255 
-1 -0.606616 0.910031 0 0 0 255 
-1 0.357524 -0.829035 0 0 0 255 
-1 0.995911 -0.731132 0 0 0 255 
-1 -0.698904 -0.032197 0 0 0 255 
-1 -0.667348 0.0795007 0 0 0 255 
-1 -0.312174 -0.793817 0 0 0 255 
-1 -0.615284 0.169042 0 0 0 255 
-1 -0.694449 0.503159 0 0 0 255 
-1 0.0841395 -0.917356 0 0 0 255 
-1 -0.818903 -0.0644856 0 0 0 255 
-1 0.890683 0.830378 0 0 0 255 
-1 -0.505173 -0.508347 0 0 0 255 
-1 0.640797 0.878658 0 0 0 255 
-1 0.584948 0.0663167 0 0 0 255 
-1 0.671865 0.880673 0 0 0 255 
-1 0.948119 0.778924 0 0 0 255 
-1 -0.616749 0.154942 0 0 0 255 
-1 0.225379 -0.851253 0 0 0 255 
-1 -0.535081 0.728263 0 0 0 255 
-1 -0.974792 -0.928709 0 0 0 255 
-1 0.243629 -0.915098 0 0 0 255 
-1 0.330424 0.855281 0 0 0 255 
-1 0.22776 -0.116428 0 0 0 255 
-1 0.410993 0.0538041 0 0 0 255 
-1 -0.782403 0.0416578 0 0 0 255 
-1 -0.126988 -0.298441 0 0 0 255 
-1 -0.463912 -0.981323 0 0 0 255 
-1 0.960143 0.104709 0 0 0 255 
-1 0.286782 0.081637 0 0 0 255 
-1 0.746086 -0.22837 0 0 0 255 
-1 -0.703299 -0.921812 0 0 0 255 
-1 0.655324 0.671255 0 0 0 255 
-1 0.813166 -0.989563 0 0 0 255 
-1 0.0821253 -0.991455 0 0 0 255 
-1 -0.660451 -0.246986 0 0 0 255 
-1 0.991577 -0.632862 0 0 0 255 
-1 -0.530931 -0.157018 0 0 0 255 
-1 0.529893 -0.364666 0 0 0 255 
-1 0.451155 0.629933 0 0 0 255 
-1 -0.90173 0.855831 0 0 0 255 
-1 0.765069 -0.529283 0 0 0 255 
-1 -0.699576 0.265786 0 0 0 255 
-1 0.411908 -0.670461 0 0 0 255 
-1 -0.0874355 -0.418744 0 0 0 255 
-1 -0.762627 0.34843 0 0 0 255 
-1 -0.204749 0.270547 0 0 0 255 
-1 0.599841 -0.0547197 0 0 0 255 
-1 0.715262 -0.591479 0 0 0 255 
-1 -0.641591 -0.987121 0 0 0 255 
-1 0.6292 -0.0414136 0 0 0 255 
-1 -0.276589 0.0950041 0 0 0 255 
-1 -0.656545 0.237648 0 0 0 255 
-1 0.232337 0.246559 0 0 0 255 
-1 -0.140172 -0.861812 0 0 0 255 
-1 0.245399 -0.100925 0 0 0 255 
-1 0.39079 0.652028 0 0 0 255 
-1 -0.861873 0.697378 0 0 0 255 
-1 -0.76281 -0.380657 0 0 0 255 
-1 0.0610675 -0.803705 0 0 0 255 
-1 0.708548 0.664968 0 0 0 255 
-1 0.983398 0.769158 0 0 0 255 
-1 0.284707 0.219337 0 0 0 255 
-1 0.99237 0.310709 0 0 0 255 
-1 0.520432 -0.373943 0 0 0 255 
-1 -0.270425 0.593371 0 0 0 255 
-1 -0.974975 -0.164342 0 0 0 255 
-1 0.661367 0.681814 0 0 0 255 
-1 -0.5374 -0.649648 0 0 0 255 
-1 0.854244 0.895444 0 0 0 255 
-1 -0.836726 -0.852718 0 0 0 255 
-1 -0.695181 0.670461 0 0 0 255 
-1 -0.137608 -0.467269 0 0 0 255 
-1 0.90875 0.568407 0 0 0 255 
-1 0.539109 0.507553 0 0 0 255 
-1 0.0929899 0.853145 0 0 0 255 
-1 0.567553 -0.49028 0 0 0 255 
-1 -0.761895 -0.234046 0 0 0 255 
-1 0.660878 0.590869 0 0 0 255 
-1 0.514451 0.116611 0 0 0 255 
-1 -0.361064 -0.568224 0 0 0 255 
-1 -0.0776086 0.327189 0 0 0 255 
-1 0.13535 -0.644276 0 0 0 255 
-1 -0.610157 0.866695 0 0 0 255 
-1 -0.781121 0.908017 0 0 0 255 
-1 -0.996826 0.34666 0 0 0 255 
-1 -0.197058 -0.112888 0 0 0 255 
-1 -0.922178 0.661611 0 0 0 255 
-1 0.888058 0.18601 0 0 0 255 
-1 -0.941282 0.700552 0 0 0 255 
-1 0.393841 0.679373 0 0 0 255 
-1 -0.566393 0.585009 0 0 0 255 
-1 0.822504 -0.0704672 0 0 0 255 
-1 0.18778 0.343059 0 0 0 255 
-1 0.515 0.924131 0 0 0 255 
-1 -0.915036 -0.3314 0 0 0 255 
-1 -0.93524 0.656423 0 0 0 255 
-1 -0.532517 0.184545 0 0 0 255 
-1 -0.217444 0.363689 0 0 0 255 
-1 0.586718 -0.321329 0 0 0 255 
-1 0.220618 -0.101596 0 0 0 255 
-1 -0.0544145 0.364177 0 0 0 255 
-1 0.910947 0.273782 0 0 0 255 
-1 -0.983459 -0.421674 0 0 0 255 
-1 -0.106723 0.147557 0 0 0 255 
-1 -0.769646 0.729728 0 0 0 255 
-1 -0.428632 -0.862178 0 0 0 255 
-1 0.575121 -0.022309 0 0 0 255 
-1 0.169347 -0.35136 0 0 0 255 
-1 0.741142 -0.66332 0 0 0 255 
-1 -0.167333 -0.425336 0 0 0 255 
-1 0.752007 0.885372 0 0 0 255 
-1 0.467757 -0.896908 0 0 0 255 
-1 -0.318949 0.779962 0 0 0 255 
-1 -0.00369274 0.0830409 0 0 0 255 
-1 0.621143 -0.927183 0 0 0 255 
-1 -0.935789 0.344646 0 0 0 255 
-1 0.79516 -0.830988 0 0 0 255 
-1 0.638844 0.16483 0 0 0 255 
-1 0.827143 0.364849 0 0 0 255 
-1 -0.39555 0.0507523 0 0 0 255 
-1 -0.0240791 -0.438459 0 0 0 255 
-1 -0.326518 0.389935 0 0 0 255 
-1 -0.173864 -0.832331 0 0 0 255 
-1 -0.0824305 0.551378 0 0 0 255 
-1 0.779595 0.665212 0 0 0 255 
-1 0.244057 -0.035493 0 0 0 255 
-1 -0.0577715 0.548997 0 0 0 255 
-1 -0.55681 0.797906 0 0 0 255 
-1 -0.0859096 0.622425 0 0 0 255 
-1 0.263222 -0.633473 0 0 0 255 
-1 -0.196387 -0.820185 0 0 0 255 
0.584521 1 -0.445173 0 0 0 255 
0.763298 1 0.689261 0 0 0 255 
-0.59209 1 0.609119 0 0 0 255 
0.719657 1 0.453597 0 0 0 255 
0.298807 1 -0.123386 0 0 0 255 
-0.992187 1 0.621143 0 0 0 255 
0.384136 1 0.69628 0 0 0 255 
-0.438215 1 0.0924406 0 0 0 255 
-0.760186 1 0.932249 0 0 0 255 
-0.592883 1 0.578845 0 0 0 255 
0.273965 1 0.831965 0 0 0 255 
-0.288491 1 -0.445296 0 0 0 255 
0.762627 1 0.239357 0 0 0 255 
-0.197058 1 -0.634327 0 0 0 255 
0.777032 1 0.945616 0 0 0 255 
0.636341 1 -0.444014 0 0 0 255 
-0.895566 1 0.372295 0 0 0 255 
-0.590808 1 -0.190161 0 0 0 255 
-0.841121 1 0.0969573 0 0 0 255 
-0.342143 1 -0.984802 0 0 0 255 
-0.945799 1 -0.796197 0 0 0 255 
-0.551195 1 -0.896908 0 0 0 255 
0.71923 1 0.321757 0 0 0 255 
0.473495 1 -0.260109 0 0 0 255 
0.422102 1 -0.25425 0 0 0 255 
-0.799493 1 0.90997 0 0 0 255 
0.591601 1 0.481674 0 0 0 255 
-0.00564592 1 0.16129 0 0 0 255 
-0.377056 1 0.648732 0 0 0 255 
-0.481002 1 -0.942137 0 0 0 255 
-0.311625 1 -0.319315 0 0 0 255 
0.0625935 1 0.433699 0 0 0 255 
-0.314493 1 -0.574511 0 0 0 255 
0.889828 1 -0.377056 0 0 0 255 
0.6021 1 0.809992 0 0 0 255 
-0.39024 1 0.208838 0 0 0 255 
0.999451 1 -0.541307 0 0 0 255 
0.0815149 1 -0.778375 0 0 0 255 
0.276711 1 -0.215125 0 0 0 255 
-0.180883 1 -0.601062 0 0 0 255 
0.113559 1 0.856868 0 0 0 255 
0.459151 1 0.322855 0 0 0 255 
-0.739311 1 -0.965148 0 0 0 255 
-0.145665 1 -0.759575 0 0 0 255 
0.897153 1 0.219947 0 0 0 255 
0.018952 1 -0.608325 0 0 0 255 
0.354961 1 0.81109 0 0 0 255 
-0.282693 1 -0.0291452 0 0 0 255 
-0.622791 1 -0.621937 0 0 0 255 
0.209387 1 0.677786 0 0 0 255 
0.467208 1 0.871395 0 0 0 255 
-0.202918 1 0.431623 0 0 0 255 
0.564013 1 0.165258 0 0 0 255 
-0.401044 1 -0.539537 0 0 0 255 
0.486557 1 0.108188 0 0 0 255 
-0.327006 1 -0.0906705 0 0 0 255 
0.576769 1 -0.709525 0 0 0 255 
-0.544969 1 -0.435957 0 0 0 255 
0.989685 1 0.679189 0 0 0 255 
-0.26603 1 -0.472579 0 0 0 255 
0.383831 1 0.369549 0 0 0 255 
-0.705496 1 0.954405 0 0 0 255 
0.591601 1 0.205054 0 0 0 255 
0.176672 1 -0.498703 0 0 0 255 
0.467574 1 -0.821162 0 0 0 255 
-0.529893 1 0.230384 0 0 0 255 
0.753655 1 0.595691 0 0 0 255 
0.945433 1 -0.43083 0 0 0 255 
0.72808 1 -0.804987 0 0 0 255 
0.854244 1 -0.17716 0 0 0 255 
-0.139134 1 -0.931883 0 0 0 255 
-0.824213 1 0.911496 0 0 0 255 
0.937437 1 -0.518235 0 0 0 255 
0.682974 1 0.711905 0 0 0 255 
0.381268 1 -0.0815149 0 0 0 255 
-0.295511 1 0.870724 0 0 0 255 
0.0573443 1 -0.0132756 0 0 0 255 
0.622608 1 0.477584 0 0 0 255 
-0.079989 1 0.609668 0 0 0 255 
-0.791742 1 0.784661 0 0 0 255 
-0.267373 1 0.311808 0 0 0 255 
0.121799 1 -0.505966 0 0 0 255 
-0.0197455 1 0.738701 0 0 0 255 
-0.465682 1 0.245338 0 0 0 255 
0.272866 1 -0.982543 0 0 0 255 
-0.889523 1 -0.918577 0 0 0 255 
-0.756401 1 -0.554979 0 0 0 255 
0.784661 1 0.0965911 0 0 0 255 
0.434736 1 -0.474044 0 0 0 255 
-0.88995 1 0.426862 0 0 0 255 
-0.817072 1 -0.176794 0 0 0 255 
-0.283792 1 -0.517991 0 0 0 255 
-0.681997 1 -0.316568 0 0 0 255 
0.815302 1 0.0876186 0 0 0 255 
0.819147 1 -0.0989715 0 0 0 255 
0.0212104 1 -0.743828 0 0 0 255 
-0.313028 1 -0.9541 0 0 0 255 
-0.788202 1 0.888974 0 0 0 255 
0.435408 1 0.747856 0 0 0 255 
0.0472732 1 -0.927854 0 0 0 255 
-0.969909 1 0.949461 0 0 0 255 
0.291238 1 0.0285958 0 0 0 255 
-0.939085 1 -0.726859 0 0 0 255 
0.522935 1 0.456709 0 0 0 255 
-0.32902 1 -0.57152 0 0 0 255 
0.426618 1 -0.798578 0 0 0 255 
-0.463485 1 0.280068 0 0 0 255 
-0.151646 1 -0.813715 0 0 0 255 
0.241798 1 0.0441603 0 0 0 255 
0.469832 1 0.555345 0 0 0 255 
-0.0252998 1 -0.666005 0 0 0 255 
-0.484115 1 -0.722831 0 0 0 255 
-0.166723 1 0.685598 0 0 0 255 
-0.364788 1 -0.707694 0 0 0 255 
-0.572985 1 -0.98822 0 0 0 255 
-0.778375 1 -0.099826 0 0 0 255 
-0.867489 1 -0.594409 0 0 0 255 
-0.770013 1 0.726249 0 0 0 255 
0.570971 1 0.0906705 0 0 0 255 
0.230628 1 -0.465499 0 0 0 255 
-0.138157 1 -0.64507 0 0 0 255 
-0.705008 1 0.610218 0 0 0 255 
-0.771538 1 0.242286 0 0 0 255 
0.558885 1 0.671926 0 0 0 255 
0.830439 1 -0.123875 0 0 0 255 
0.218543 1 0.546129 0 0 0 255 
-0.470382 1 -0.207434 0 0 0 255 
0.534288 1 -0.615528 0 0 0 255 
-0.0873745 1 -0.179846 0 0 0 255 
0.384869 1 -0.711539 0 0 0 255 
0.532579 1 -0.889279 0 0 0 255 
0.298685 1 -0.932005 0 0 0 255 
0.263527 1 0.148167 0 0 0 255 
-0.0795618 1 -0.244484 0 0 0 255 
-0.886227 1 -0.81048 0 0 0 255 
-0.185949 1 0.673696 0 0 0 255 
0.0861538 1 -0.118931 0 0 0 255 
-0.399274 1 0.559618 0 0 0 255 
0.939879 1 -0.020539 0 0 0 255 
0.934812 1 0.74041 0 0 0 255 
0.261513 1 0.459151 0 0 0 255 
0.979064 1 -0.130284 0 0 0 255 
0.333903 1 0.0393994 0 0 0 255 
0.109531 1 -0.459212 0 0 0 255 
-0.845759 1 0.574206 0 0 0 255 
0.801019 1 0.418806 0 0 0 255 
0.849055 1 0.0662557 0 0 0 255 
-0.726432 1 0.652638 0 0 0 255 
0.907224 1 0.537095 0 0 0 255 
-0.233497 1 -0.532456 0 0 0 255 
-0.638356 1 -0.134251 0 0 0 255 
-0.504135 1 0.268471 0 0 0 255 
0.536241 1 0.242775 0 0 0 255 
0.701712 1 0.538377 0 0 0 255 
-0.503952 1 -0.672475 0 0 0 255 
0.942076 1 -0.443403 0 0 0 255 
0.138279 1 -0.204321 0 0 0 255 
0.204016 1 0.730705 0 0 0 255 
-0.805719 1 0.966124 0 0 0 255 
-0.283609 1 0.384625 0 0 0 255 
-0.474227 1 0.857479 0 0 0 255 
0.821833 1 0.431562 0 0 0 255 
0.242958 1 0.591174 0 0 0 255 
-0.85461 1 -0.280801 0 0 0 255 
-0.40141 1 -0.220069 0 0 0 255 
-0.167821 1 -0.767388 0 0 0 255 
0.568712 1 -0.33079 0 0 0 255 
0.0653401 1 -0.985961 0 0 0 255 
-0.232521 1 0.586169 0 0 0 255 
-0.321451 1 0.867 0 0 0 255 
-0.882931 1 -0.0610065 0 0 0 255 
-0.324686 1 -0.101291 0 0 0 255 
-0.260048 1 0.861019 0 0 0 255 
0.13126 1 0.977905 0 0 0 255 
0.125034 1 -0.156652 0 0 0 255 
-0.479171 1 0.48027 0 0 0 255 
0.983154 1 0.614795 0 0 0 255 
-0.767144 1 0.532212 0 0 0 255 
0.60033 1 -0.660085 0 0 0 255 
0.167211 1 -0.428632 0 0 0 255 
0.173498 1 -0.818049 0 0 0 255 
-0.908444 1 0.690725 0 0 0 255 
-0.178808 1 0.653737 0 0 0 255 
-0.872188 1 -0.843623 0 0 0 255 
-0.0513627 1 0.217383 0 0 0 255 
-0.415448 1 -0.0518509 0 0 0 255 
0.667653 1 -0.467391 0 0 0 255 
-0.391583 1 0.408124 0 0 0 255 
-0.728629 1 -0.147191 0 0 0 255 
0.033845 1 -0.645314 0 0 0 255 
-0.403119 1 0.570544 0 0 0 255 
0.630482 1 -0.432356 0 0 0 255 
0.720389 1 0.0762658 0 0 0 255 
-0.0823695 1 0.633045 0 0 0 255 
-0.923338 1 -0.84167 0 0 0 255 
0.0958586 1 -0.999145 0 0 0 255 
-0.981628 1 0.396039 0 0 0 255 
0.679189 1 -0.998657 0 0 0 255 
-0.712577 1 -0.37315 0 0 0 255 
-0.644704 1 -0.257851 0 0 0 255 
0.111789 1 -0.147191 0 0 0 255 
-0.3043 1 -0.483444 0 0 0 255 
0.906735 1 0.143651 0 0 0 255 
0.843867 1 0.839534 0 0 0 255 
-0.886776 1 0.441694 0 0 0 255 
0.469893 1 0.749321 0 0 0 255 
-0.211951 1 -0.0738853 0 0 0 255 
-0.655934 1 -0.187231 0 0 0 255 
0.420026 1 0.00711081 0 0 0 255 
0.107089 1 0.603687 0 0 0 255 
-0.652699 1 -0.666555 0 0 0 255 
0.442061 1 -0.462142 0 0 0 255 
0.320597 1 -0.32725 0 0 0 255 
0.139439 1 0.0934782 0 0 0 255 
-0.532273 1 0.40025 0 0 0 255 
0.736259 1 -0.13126 0 0 0 255 
-0.597705 1 -0.131016 0 0 0 255 
-0.23954 1 -0.111118 0 0 0 255 
-0.262062 1 0.373699 0 0 0 255 
-0.63683 1 -0.689199 0 0 0 255 
-0.927976 1 0.020661 0 0 0 255 
-0.467269 1 -0.555895 0 0 0 255 
-0.166478 1 -0.182653 0 0 0 255 
-0.597949 1 -0.942869 0 0 0 255 
-0.497299 1 -0.0423292 0 0 0 255 
0.629933 1 -0.479598 0 0 0 255 
0.856685 1 -0.156041 0 0 0 255 
0.720695 1 0.700674 0 0 0 255 
-0.681814 1 0.110263 0 0 0 255 
-0.323099 1 -0.0842616 0 0 0 255 
0.444441 1 0.0393994 0 0 0 255 
0.825312 1 -0.0655232 0 0 0 255 
0.328715 1 0.552599 0 0 0 255 
0.250282 1 -0.786065 0 0 0 255 
-0.540513 1 -0.359294 0 0 0 255 
-0.723258 1 -0.446577 0 0 0 255 
-0.370037 1 -0.0444655 0 0 0 255 
-0.899106 1 0.366253 0 0 0 255 
-0.924558 1 -0.469588 0 0 0 255 
0.236 1 0.0682089 0 0 0 255 
0.377544 1 0.513413 0 0 0 255 
0.16245 1 0.916929 0 0 0 255 
0.0690634 1 -0.39024 0 0 0 255 
0.700247 1 -0.754082 0 0 0 255 
-0.449873 1 -0.0954924 0 0 0 255 
0.406476 1 -0.313883 0 0 0 255 
-0.868221 1 -0.886288 0 0 0 255 
0.993591 1 0.888424 0 0 0 255 
0.0129704 1 0.350444 0 0 0 255 
0.608875 1 0.722465 0 0 0 255 
0.014069 1 0.429243 0 0 0 255 
-0.926023 1 0.16184 0 0 0 255 
-0.805048 1 -0.165197 0 0 0 255 
-0.911985 1 0.33726 0 0 0 255 
0.312967 1 -0.0196234 0 0 0 255 
-0.780938 1 -0.210852 0 0 0 255 
-0.308329 1 -0.455061 0 0 0 255 
-0.521348 1 0.0336009 0 0 0 255 
-0.281899 1 0.742363 0 0 0 255 
0.653249 1 0.418622 0 0 0 255 
0.105991 1 0.598926 0 0 0 255 
0.603137 1 -0.857784 0 0 0 255 
0.526414 1 -0.0534989 0 0 0 255 
0.678701 1 -0.5197 0 0 0 255 
-0.559862 1 0.119541 0 0 0 255 
-0.497116 1 -0.0227973 0 0 0 255 
0.238868 1 0.540086 0 0 0 255 
-0.126988 1 -0.156163 0 0 0 255 
-0.649037 1 -0.280496 0 0 0 255 
-0.307169 1 -0.676748 0 0 0 255 
-0.947874 1 -0.038667 0 0 0 255 
-0.0842006 1 0.588916 0 0 0 255 
-0.419233 1 0.458296 0 0 0 255 
-0.299844 1 -0.931944 0 0 0 255 
0.0570391 1 0.794366 0 0 0 255 
-0.393841 1 -0.798151 0 0 0 255 
0.876278 1 -0.665334 0 0 0 255 
-0.0480667 1 -0.208716 0 0 0 255 
0.956542 1 0.864986 0 0 0 255 
-0.365459 1 -0.489242 0 0 0 255 
0.708792 1 -0.622913 0 0 0 255 
-0.928404 1 0.123081 0 0 0 255 
-0.884396 1 -0.659536 0 0 0 255 
-0.328959 1 0.670522 0 0 0 255 
0.107578 1 0.393414 0 0 0 255 
-0.350749 1 -0.315043 0 0 0 255 
0.756279 1 0.396161 0 0 0 255 
0.332133 1 -0.487838 0 0 0 255 
0.918638 1 0.444258 0 0 0 255 
0.546373 1 0.425031 0 0 0 255 
0.108676 1 -0.989929 0 0 0 255 
-0.410688 1 -0.432722 0 0 0 255 
-0.197851 1 -0.89935 0 0 0 255 
-0.201819 1 0.159948 0 0 0 255 
-0.667348 1 0.450179 0 0 0 255 
0.181677 1 -0.918821 0 0 0 255 
0.280557 1 0.550401 0 0 0 255 
-0.823176 1 -0.863094 0 0 0 255 
-0.979369 1 0.014069 0 0 0 255 
-0.405988 1 -0.673696 0 0 0 255 
-0.850032 1 -0.387066 0 0 0 255 
0.476547 1 -0.572436 0 0 0 255 
0.0955535 1 0.586596 0 0 0 255 
-0.834773 1 -0.470504 0 0 0 255 
0.56737 1 0.729057 0 0 0 255 
0.584094 1 -0.0340281 0 0 0 255 
0.915342 1 0.575182 0 0 0 255 
-0.11301 1 -0.275369 0 0 0 255 
0.125645 1 0.983398 0 0 0 255 
-0.60271 1 -0.955687 0 0 0 255 
0.397382 1 -0.212806 0 0 0 255 
-0.543321 1 -0.156285 0 0 0 255 
0.230506 1 -0.773186 0 0 0 255 
-0.346904 1 -0.922361 0 0 0 255 
0.974853 1 -0.189062 0 0 0 255 
0.147008 1 0.358867 0 0 0 255 
-0.91052 1 0.357219 0 0 0 255 
0.728813 1 -0.549303 0 0 0 255 
0.197241 1 0.463485 0 0 0 255 
0.0540483 1 0.787225 0 0 0 255 
0.627369 1 0.823908 0 0 0 255 
-0.522019 1 0.259682 0 0 0 255 
0.788751 1 0.866634 0 0 0 255 
-0.712699 1 -0.628162 0 0 0 255 
-0.360454 1 0.416913 0 0 0 255 
0.164892 1 0.760308 0 0 0 255 
-0.0248726 1 0.714957 0 0 0 255 
-0.337138 1 0.25132 0 0 0 255 
-0.503037 1 0.404035 0 0 0 255 
0.557604 1 -0.663869 0 0 0 255 
-0.106662 1 0.297586 0 0 0 255 
-0.536302 1 -0.570849 0 0 0 255 
0.713004 1 -0.922239 0 0 0 255 
0.24546 1 0.798761 0 0 0 255 
-0.104343 1 0.836421 0 0 0 255 
-0.171361 1 -0.142674 0 0 0 255 
-0.312723 1 0.775323 0 0 0 255 
0.240455 1 -0.16831 0 0 0 255 
0.56035 1 -0.297281 0 0 0 255 
0.332316 1 0.945494 0 0 0 255 
-0.0625324 1 -0.566942 0 0 0 255 
-0.073336 1 0.392987 0 0 0 255 
0.222449 1 0.0762047 0 0 0 255 
0.319803 1 0.807733 0 0 0 255 
-0.868587 1 0.739921 0 0 0 255 
0.420209 1 -0.114597 0 0 0 255 
-0.163793 1 -0.39317 0 0 0 255 
-0.442976 1 0.561388 0 0 0 255 
0.233131 1 -0.0508133 0 0 0 255 
0.401166 1 -0.0896939 0 0 0 255 
0.982116 1 -0.35612 0 0 0 255 
0.760491 1 0.987854 0 0 0 255 
0.0741905 1 -0.585192 0 0 0 255 
-0.518784 1 0.414899 0 0 0 255 
0.83105 1 -0.406537 0 0 0 255 
-0.432112 1 0.869991 0 0 0 255 
-0.336283 1 0.911374 0 0 0 255 
-0.831477 1 -0.952757 0 0 0 255 
0.878048 1 -0.032136 0 0 0 255 
0.513413 1 -0.682608 0 0 0 255 
-0.451216 1 0.80224 0 0 0 255 
0.493454 1 0.530442 0 0 0 255 
-0.742302 1 0.68804 0 0 0 255 
0.56859 1 -0.606922 0 0 0 255 
0.538438 1 -0.881588 0 0 0 255 
0.355632 1 -0.131138 0 0 0 255 
-0.545152 1 0.203406 0 0 0 255 
0.812616 1 -0.647755 0 0 0 255 
-0.896786 1 0.609363 0 0 0 255 
-0.342021 1 0.199011 0 0 0 255 
-0.778863 1 -0.00991852 0 0 0 255 
-0.205969 1 0.808283 0 0 0 255 
-0.23661 1 0.828791 0 0 0 255 
-0.71337 1 -0.902524 0 0 0 255 
0.512375 1 -0.00961333 0 0 0 255 
-0.853816 1 0.135655 0 0 0 255 
-0.222877 1 -0.680898 0 0 0 255 
-0.997681 1 0.158238 0 0 0 255 
0.256935 1 -0.443281 0 0 0 255 
-0.981201 1 0.425031 0 0 0 255 
0.443159 1 0.955199 0 0 0 255 
-0.69628 1 -0.34788 0 0 0 255 
0.769402 1 -0.538743 0 0 0 255 
-0.110691 1 0.300089 0 0 0 255 
0.328043 1 -0.489425 0 0 0 255 
-0.674123 1 -0.919248 0 0 0 255 
-0.379315 1 -0.464949 0 0 0 255 
0.314493 1 0.911618 0 0 0 255 
0.732475 1 0.510239 0 0 0 255 
0.837153 1 -0.562548 0 0 0 255 
-0.221839 1 -0.501511 0 0 0 255 
-0.813105 1 -0.581408 0 0 0 255 
0.707999 1 -0.571093 0 0 0 255 
-0.60509 1 -0.0121158 0 0 0 255 
-0.172765 1 -0.454878 0 0 0 255 
0.0574053 1 0.271279 0 0 0 255 
-0.0625935 1 0.301737 0 0 0 255 
0.725517 1 -0.61742 0 0 0 255 
-0.911924 1 0.242714 0 0 0 255 
0.0863979 1 0.606494 0 0 0 255 
0.790338 1 0.805841 0 0 0 255 
-0.612049 1 -0.0859706 0 0 0 255 
-0.560839 1 0.312601 0 0 0 255 
-0.813166 1 -0.930662 0 0 0 255 
-0.132481 1 0.878048 0 0 0 255 
-0.21366 1 0.730583 0 0 0 255 
0.660146 1 -0.14951 0 0 0 255 
-0.0792566 1 0.372967 0 0 0 255 
0.345988 1 0.929991 0 0 0 255 
0.591479 1 0.82049 0 0 0 255 
-0.893429 1 -0.448286 0 0 0 255 
-0.287393 1 0.909238 0 0 0 255 
-0.563036 1 0.723197 0 0 0 255 
0.636158 1 -0.422895 0 0 0 255 
0.530442 1 -0.498032 0 0 0 255 
-0.0589312 1 -0.277505 0 0 0 255 
0.270241 1 0.967162 0 0 0 255 
-0.655324 1 -0.240394 0 0 0 255 
0.855647 1 0.098056 0 0 0 255 
-0.527268 1 0.159337 0 0 0 255 
0.516221 1 0.702322 0 0 0 255 
-0.239174 1 0.659841 0 0 0 255 
-0.275124 1 0.658925 0 0 0 255 
-0.800592 1 0.506516 0 0 0 255 
-0.940916 1 0.530747 0 0 0 255 
-0.764824 1 0.289041 0 0 0 255 
0.627674 1 0.29136 0 0 0 255 
-0.858333 1 0.929563 0 0 0 255 
-0.966552 1 0.757134 0 0 0 255 
-0.164037 1 0.397137 0 0 0 255 
0.422895 1 0.57213 0 0 0 255 
0.681875 1 -0.975158 0 0 0 255 
0.536119 1 0.501999 0 0 0 255 
-0.455794 1 -0.864559 0 0 0 255 
0.0685141 1 0.608325 0 0 0 255 
-0.512314 1 -0.702445 0 0 0 255 
-0.673391 1 0.850826 0 0 0 255 
0.297281 1 -0.822504 0 0 0 255 
-0.628712 1 0.0398267 0 0 0 255 
-0.309122 1 0.87756 0 0 0 255 
0.828669 1 0.10007 0 0 0 255 
-0.0581378 1 0.108798 0 0 0 255 
-0.4326 1 0.545396 0 0 0 255 
0.880978 1 0.786065 0 0 0 255 
-0.255715 1 0.163854 0 0 0 255 
0.160558 1 0.898618 0 0 0 255 
0.548875 1 -0.584948 0 0 0 255 
0.478744 1 -0.933897 0 0 0 255 
0.594653 1 0.202857 0 0 0 255 
-0.567492 1 -0.733573 0 0 0 255 
0.546007 1 -0.248329 0 0 0 255 
-0.948912 1 -0.911618 0 0 0 255 
-0.502121 1 0.538926 0 0 0 255 
-0.907529 1 -0.244179 0 0 0 255 
-0.91998 1 0.863643 0 0 0 255 
-0.870418 1 -0.654714 0 0 0 255 
0.49913 1 0.916807 0 0 0 255 
-0.450056 1 -0.673025 0 0 0 255 
0.997497 1 -0.588488 0 0 0 255 
-0.904599 1 0.0459914 0 0 0 255 
0.762688 1 0.176428 0 0 0 255 
0.730583 1 0.282022 0 0 0 255 
0.39903 1 0.871761 0 0 0 255 
0.693106 1 0.824641 0 0 0 255 
-0.0592975 1 -0.602527 0 0 0 255 
-0.196997 1 -0.665517 0 0 0 255 
0.275674 1 -0.122227 0 0 0 255 
-0.263771 1 0.874386 0 0 0 255 
0.0297555 1 -0.420331 0 0 0 255 
0.253517 1 0.636158 0 0 0 255 
0.663991 1 -0.995849 0 0 0 255 
0.566454 1 -0.180212 0 0 0 255 
-0.97174 1 -0.0800501 0 0 0 255 
-0.629505 1 -0.427351 0 0 0 255 
-0.866085 1 0.553941 0 0 0 255 
-0.170934 1 0.639882 0 0 0 255 
0.707511 1 -0.249611 0 0 0 255 
0.201758 1 -0.857601 0 0 0 255 
0.420942 1 0.911924 0 0 0 255 
0.127781 1 0.954466 0 0 0 255 
-0.19248 1 0.198767 0 0 0 255 
-0.953124 1 -0.27134 0 0 0 255 
-0.985412 1 0.0276803 0 0 0 255 
-0.879696 1 -0.0137028 0 0 0 255 
0.9729 1 0.633839 0 0 0 255 
0.547533 1 0.0795007 0 0 0 255 
-0.482101 1 -0.410321 0 0 0 255 
0.618641 1 -0.488327 0 0 0 255 
0.737419 1 -0.0413526 0 0 0 255 
-0.56267 1 0.30723 0 0 0 255 
0.587573 1 0.453108 0 0 0 255 
-0.745109 1 0.111423 0 0 0 255 
0.87347 1 -0.185888 0 0 0 255 
-0.984863 1 0.719413 0 0 0 255 
-0.730888 1 0.884274 0 0 0 255 
-0.723075 1 -0.964476 0 0 0 255 
0.416669 1 -0.245399 0 0 0 255 
-0.596973 1 -0.70513 0 0 0 255 
-0.460433 1 0.183874 0 0 0 255 
-0.965575 1 0.993469 0 0 0 255 
0.67864 1 -0.540391 0 0 0 255 
-0.348247 1 -0.383404 0 0 0 255 
-0.13126 1 -0.7481 0 0 0 255 
-0.280251 1 0.182592 0 0 0 255 
0.560717 1 0.0423292 0 0 0 255 
0.756829 1 0.0738853 0 0 0 255 
-0.386639 1 0.655934 0 0 0 255 
-0.0752892 1 0.867733 0 0 0 255 
0.481246 1 -0.481552 0 0 0 255 
-0.353069 1 0.147069 0 0 0 255 
-0.944761 1 -0.233619 0 0 0 255 
0.57622 1 0.823542 0 0 0 255 
0.227882 1 0.498276 0 0 0 255 
-0.792108 1 0.58623 0 0 0 255 
0.896725 1 -0.47972 0 0 0 255 
-0.186316 1 0.953185 0 0 0 255 
-0.950865 1 -0.836787 0 0 0 255 
0.403729 1 -0.702628 0 0 0 255 
0.0253609 1 0.37669 0 0 0 255 
0.370037 1 -0.605213 0 0 0 255 
-0.704031 1 -0.40965 0 0 0 255 
-0.442061 1 -0.252113 0 0 0 255 
-0.638844 1 0.0257881 0 0 0 255 
-0.980834 1 -0.570971 0 0 0 255 
-0.0730308 1 0.487045 0 0 0 255 
0.858333 1 -0.29606 0 0 0 255 
0.59801 1 0.414838 0 0 0 255 
0.652577 1 -0.500107 0 0 0 255 
-0.810846 1 0.398053 0 0 0 255 
-0.854366 1 -0.887265 0 0 0 255 
-0.348247 1 0.652211 0 0 0 255 
0.546922 1 0.661245 0 0 0 255 
0.787408 1 0.448225 0 0 0 255 
-0.949034 1 0.94171 0 0 0 255 
-0.37138 1 -0.64629 0 0 0 255 
-0.614246 1 -0.238624 0 0 0 255 
0.854122 1 0.682546 0 0 0 255 
-0.457442 1 -0.213355 0 0 0 255 
-0.874752 1 0.992492 0 0 0 255 
0.59801 1 -0.320963 0 0 0 255 
0.0328074 1 -0.933897 0 0 0 255 
-0.0542314 1 0.0633259 0 0 0 255 
0.673086 1 -0.185034 0 0 0 255 
0.574511 1 0.921934 0 0 0 255 
-0.0130924 1 -0.792657 0 0 0 255 
0.498093 1 0.591601 0 0 0 255 
-0.860042 1 -0.113742 0 0 0 255 
-0.673086 1 -0.0984222 0 0 0 255 
0.647084 1 -0.134007 0 0 0 255 
-0.498642 1 -0.61156 0 0 0 255 
0.901608 1 0.826655 0 0 0 255 
0.149876 1 0.196265 0 0 0 255 
-0.490646 1 0.308573 0 0 0 255 
0.134983 1 -0.520493 0 0 0 255 
-0.405683 1 -0.197913 0 0 0 255 
-0.150426 1 0.114597 0 0 0 255 
-0.70336 1 0.574633 0 0 0 255 
0.990967 1 -0.457259 0 0 0 255 
-0.736869 1 -0.668874 0 0 0 255 
0.101779 1 0.872616 0 0 0 255 
-0.704276 1 0.714957 0 0 0 255 
-0.605457 1 0.196814 0 0 0 255 
0.716239 1 -0.529405 0 0 0 255 
-0.499374 1 0.696585 0 0 0 255 
0.68273 1 0.0654622 0 0 0 255 
-0.427229 1 -0.253395 0 0 0 255 
-0.100803 1 -0.0570391 0 0 0 255 
0.861751 1 -0.835932 0 0 0 255 
-0.850826 1 0.618458 0 0 0 255 
0.732231 1 0.197913 0 0 0 255 
0.101779 1 0.767205 0 0 0 255 
-0.658498 1 -0.904233 0 0 0 255 
-0.857906 1 -0.445967 0 0 0 255 
-0.889523 1 -0.645436 0 0 0 255 
0.808039 1 0.956603 0 0 0 255 
-0.0643635 1 0.310648 0 0 0 255 
-0.971496 1 0.994568 0 0 0 255 
-0.937681 1 -0.190344 0 0 0 255 
-0.9953 1 -0.155187 0 0 0 255 
-0.0815149 1 0.556688 0 0 0 255 
-0.500473 1 0.0433058 0 0 0 255 
-0.756706 1 0.644276 0 0 0 255 
-0.241493 1 0.604114 0 0 0 255 
0.78692 1 -0.0697348 0 0 0 255 
0.524522 1 -0.827754 0 0 0 255 
0.954039 1 0.645253 0 0 0 255 
-0.124607 1 0.516831 0 0 0 255 
-0.729911 1 0.0962249 0 0 0 255 
-0.831416 1 0.0187078 0 0 0 255 
0.706473 1 0.855464 0 0 0 255 
-0.545518 1 -0.436628 0 0 0 255 
-0.0312204 1 0.620777 0 0 0 255 
-0.413495 1 0.65508 0 0 0 255 
0.0760826 1 -0.731742 0 0 0 255 
-0.850581 1 -0.110263 0 0 0 255 
-0.814875 1 -0.269204 0 0 0 255 
-0.496323 1 -0.606189 0 0 0 255 
0.901303 1 -0.520798 0 0 0 255 
-0.0514237 1 -0.284585 0 0 0 255 
0.507553 1 -0.188879 0 0 0 255 
0.499252 1 -0.809626 0 0 0 255 
0.892697 1 0.106967 0 0 0 255 
-0.712516 1 0.246254 0 0 0 255 
-0.289407 1 0.952574 0 0 0 255 
0.401349 1 -0.294534 0 0 0 255 
-0.284219 1 0.796747 0 0 0 255 
0.306375 1 -0.847407 0 0 0 255 
-0.464827 1 0.863277 0 0 0 255 
-0.890927 1 -0.90936 0 0 0 255 
0.608325 1 -0.382122 0 0 0 255 
0.0637532 1 -0.822321 0 0 0 255 
-0.0909146 1 0.456038 0 0 0 255 
0.152013 1 0.559008 0 0 0 255 
-0.405011 1 -0.331278 0 0 0 255 
-0.479537 1 -0.563829 0 0 0 255 
0.172155 1 -0.576464 0 0 0 255 
-0.69921 1 -0.196875 0 0 0 255 
-0.636769 1 -0.299478 0 0 0 255 
-0.894894 1 -0.0327464 0 0 0 255 
0.867183 1 -0.885311 0 0 0 255 
0.541368 1 0.323771 0 0 0 255 
-0.139134 1 0.574206 0 0 0 255 
0.674551 1 -0.89581 0 0 0 255 
-0.339702 1 -0.975768 0 0 0 255 
0.724052 1 0.730583 0 0 0 255 
0.679006 1 0.36082 0 0 0 255 
-0.319498 1 0.22251 0 0 0 255 
0.952635 1 0.207739 0 0 0 255 
-0.797967 1 -0.921628 0 0 0 255 
-0.717032 1 -0.100314 0 0 0 255 
0.35728 1 -0.570544 0 0 0 255 
-0.254433 1 -0.0646687 0 0 0 255 
-0.23014 1 0.301187 0 0 0 255 
0.153356 1 -0.374493 0 0 0 255 
-0.260353 1 0.758171 0 0 0 255 
-0.677175 1 0.896176 0 0 0 255 
-0.784661 1 -0.194128 0 0 0 255 
0.898923 1 -0.521836 0 0 0 255 
-0.673269 1 0.427046 0 0 0 255 
-0.689016 1 -0.734245 0 0 0 255 
-0.202612 1 -0.710807 0 0 0 255 
0.405927 1 0.70629 0 0 0 255 
0.202246 1 0.729179 0 0 0 255 
-0.317972 1 0.949705 0 0 0 255 
-0.0376904 1 -0.160741 0 0 0 255 
-0.915952 1 -0.621632 0 0 0 255 
0.424238 1 -0.887692 0 0 0 255 
-0.740776 1 0.315165 0 0 0 255 
0.61034 1 0.385235 0 0 0 255 
0.273293 1 0.413495 0 0 0 255 
0.497055 1 -0.986633 0 0 0 255 
0.289651 1 0.72338 0 0 0 255 
-0.774163 1 0.556688 0 0 0 255 
0.872616 1 -0.0564287 0 0 0 255 
-0.26194 1 0.00881985 0 0 0 255 
-0.354411 1 -0.824641 0 0 0 255 
-0.816523 1 0.0162053 0 0 0 255 
0.254494 1 0.820612 0 0 0 255 
-0.649098 1 -0.155675 0 0 0 255 
0.217566 1 0.383831 0 0 0 255 
0.541978 1 -0.673391 0 0 0 255 
-0.472945 1 -0.919248 0 0 0 255 
-0.981628 1 -0.0942106 0 0 0 255 
-0.939268 1 0.582263 0 0 0 255 
-0.360576 1 0.416181 0 0 0 255 
0.206091 1 0.178014 0 0 0 255 
0.827815 1 0.694082 0 0 0 255 
-0.141636 1 0.386151 0 0 0 255 
-0.198645 1 -0.296426 0 0 0 255 
0.359539 1 0.799799 0 0 0 255 
-0.659597 1 0.866268 0 0 0 255 
0.263649 1 -0.983337 0 0 0 255 
0.474899 1 -0.0538041 0 0 0 255 
-0.712271 1 -0.922849 0 0 0 255 
-0.382 1 0.405988 0 0 0 255 
-0.316874 1 -0.799738 0 0 0 255 
-0.899045 1 -0.127049 0 0 0 255 
0.80108 1 -0.997803 0 0 0 255 
0.0190741 1 -0.515305 0 0 0 255 
0.0643025 1 -0.943297 0 0 0 255 
-0.962462 1 -0.334941 0 0 0 255 
0.157323 1 -0.135289 0 0 0 255 
-0.423078 1 -0.422468 0 0 0 255 
-0.751091 1 0.287698 0 0 0 255 
-0.15421 1 -0.653249 0 0 0 255 
0.722587 1 0.520737 0 0 0 255 
0.772698 1 0.394879 0 0 0 255 
-0.543687 1 0.978942 0 0 0 255 
-0.747612 1 0.149144 0 0 0 255 
-0.583605 1 -0.693655 0 0 0 255 
-0.485458 1 -0.806696 0 0 0 255 
0.456954 1 0.327799 0 0 0 255 
-0.89996 1 -0.0914029 0 0 0 255 
-0.994934 1 -0.592273 0 0 0 255 
-0.862606 1 0.0278024 0 0 0 255 
0.000335704 1 -0.390362 0 0 0 255 
0.59856 1 0.563158 0 0 0 255 
0.305338 1 0.501205 0 0 0 255 
0.234107 1 -0.492416 0 0 0 255 
-0.940062 1 0.69451 0 0 0 255 
-0.810907 1 0.809137 0 0 0 255 
0.359844 1 0.474899 0 0 0 255 
-0.869076 1 0.619251 0 0 0 255 
0.45616 1 0.427107 0 0 0 255 
0.335307 1 -0.0199286 0 0 0 255 
-0.351238 1 0.0455641 0 0 0 255 
0.821223 1 -0.822748 0 0 0 255 
0.420698 1 0.182958 0 0 0 255 
0.550829 1 0.211341 0 0 0 255 
0.398663 1 0.0818201 0 0 0 255 
-0.833186 1 0.467757 0 0 0 255 
-0.334086 1 0.912595 0 0 0 255 
0.979431 1 0.951781 0 0 0 255 
-0.949034 1 0.447249 0 0 0 255 
0.183264 1 0.644581 0 0 0 255 
-0.480941 1 0.986145 0 0 0 255 
-0.162938 1 0.886044 0 0 0 255 
0.954405 1 0.175329 0 0 0 255 
-0.781732 1 0.44261 0 0 0 255 
-0.31315 1 -0.847957 0 0 0 255 
-0.969115 1 -0.670888 0 0 0 255 
0.340983 1 -0.21073 0 0 0 255 
-0.161962 1 -0.230079 0 0 0 255 
-0.789666 1 -0.0789514 0 0 0 255 
-0.734489 1 0.156774 0 0 0 255 
-0.348918 1 -0.421613 0 0 0 255 
-0.76751 1 0.741203 0 0 0 255 
-0.825739 1 -0.311991 0 0 0 255 
0.950438 1 0.332499 0 0 0 255 
-0.732109 1 0.644459 0 0 0 255 
-0.0469069 1 -0.285073 0 0 0 255 
0.73278 1 0.905698 0 0 0 255 
-0.778985 1 0.0956145 0 0 0 255 
-0.275491 1 0.529466 0 0 0 255 
0.794733 1 -0.102695 0 0 0 255 
-0.986145 1 0.620533 0 0 0 255 
0.385052 1 0.871761 0 0 0 255 
-0.553453 1 0.238929 0 0 0 255 
0.634693 1 -0.925169 0 0 0 255 
0.46556 1 0.685293 0 0 0 255 
0.107273 1 -0.0318918 0 0 0 255 
0.0921964 1 0.471114 0 0 0 255 
0.0418409 1 0.0386059 0 0 0 255 
0.205237 1 -0.0408032 0 0 0 255 
0.645314 1 0.116916 0 0 0 255 
0.552416 1 -0.133396 0 0 0 255 
0.466842 1 0.261818 0 0 0 255 
0.93646 1 -0.19071 0 0 0 255 
-0.551744 1 0.92877 0 0 0 255 
-0.326151 1 -0.910581 0 0 0 255 
-0.172704 1 0.394574 0 0 0 255 
-0.00613422 1 -0.775262 0 0 0 255 
0.431623 1 0.3184 0 0 0 255 
0.767022 1 -0.447005 0 0 0 255 
0.300333 1 0.13712 0 0 0 255 
0.0798669 1 0.857418 0 0 0 255 
0.239967 1 0.966247 0 0 0 255 
-0.0383007 1 0.603015 0 0 0 255 
-0.86578 1 -0.945677 0 0 0 255 
0.25486 1 0.300272 0 0 0 255 
0.810907 1 -0.12302 0 0 0 255 
-0.526719 1 -0.030488 0 0 0 255 
0.292032 1 0.894589 0 0 0 255 
0.744438 1 -0.0834071 0 0 0 255 
0.551866 1 0.0987884 0 0 0 255 
-0.159093 1 -0.698233 0 0 0 255 
-0.259804 1 0.974487 0 0 0 255 
0.124973 1 -0.467025 0 0 0 255 
-0.557054 1 0.664724 0 0 0 255 
0.201147 1 -0.402875 0 0 0 255 
0.193701 1 -0.807001 0 0 0 255 
0.450911 1 -0.692679 0 0 0 255 
0.378277 1 -0.180395 0 0 0 255 
0.659597 1 0.336589 0 0 0 255 
0.130955 1 0.236793 0 0 0 255 
0.885861 1 -0.914121 0 0 0 255 
0.0573443 1 -0.405377 0 0 0 255 
-0.17777 1 -0.859127 0 0 0 255 
0.891049 1 -0.46086 0 0 0 255 
-0.600085 1 -0.439619 0 0 0 255 
-0.25956 1 0.791925 0 0 0 255 
-0.450545 1 -0.242286 0 0 0 255 
0.664663 1 0.556078 0 0 0 255 
-0.903378 1 -0.46086 0 0 0 255 
-0.820429 1 0.441572 0 0 0 255 
-0.00430311 1 -0.806207 0 0 0 255 
-0.807062 1 -0.0796228 0 0 0 255 
0.730033 1 0.6433 0 0 0 255 
0.0376293 1 0.794427 0 0 0 255 
0.995972 1 -0.195837 0 0 0 255 
-0.0144353 1 0.0380566 0 0 0 255 
-0.0229804 1 -0.258278 0 0 0 255 
0.108127 1 -0.0879849 0 0 0 255 
0.863399 1 -0.8493 0 0 0 255 
-0.12949 1 -0.312296 0 0 0 255 
-0.974914 1 0.436811 0 0 0 255 
0.648793 1 0.916807 0 0 0 255 
0.658559 1 -0.557176 0 0 0 255 
0.688772 1 0.18717 0 0 0 255 
-0.960204 1 -0.0870083 0 0 0 255 
0.140416 1 -0.0351268 0 0 0 255 
0.994995 1 -0.627369 0 0 0 255 
0.945921 1 -0.311625 0 0 0 255 
-0.927427 1 0.461776 0 0 0 255 
0.784234 1 0.00454726 0 0 0 255 
-0.558885 1 0.157323 0 0 0 255 
0.233497 1 -0.835749 0 0 0 255 
-0.0261544 1 -0.005768 0 0 0 255 
-0.950133 1 0.381451 0 0 0 255 
-0.416425 1 0.600757 0 0 0 255 
0.231727 1 0.648976 0 0 0 255 
0.871029 1 0.85522 0 0 0 255 
0.587146 1 -0.645192 0 0 0 255 
-0.18778 1 0.987304 0 0 0 255 
-0.89227 1 -0.705374 0 0 0 255 
0.776849 1 -0.749931 0 0 0 255 
0.812494 1 -0.414167 0 0 0 255 
0.890927 1 0.62035 0 0 0 255 
-0.880123 1 -0.192297 0 0 0 255 
0.887936 1 0.597461 0 0 0 255 
-0.514939 1 -0.338603 0 0 0 255 
0.375469 1 0.817316 0 0 0 255 
0.242164 1 0.825556 0 0 0 255 
0.138096 1 -0.879574 0 0 0 255 
0.582812 1 -0.284585 0 0 0 255 
0.942503 1 0.174902 0 0 0 255 
-0.379437 1 -0.202124 0 0 0 255 
-0.432478 1 0.988281 0 0 0 255 
-0.20835 1 0.210181 0 0 0 255 
0.68981 1 -0.0841395 0 0 0 255 
-0.326029 1 -0.0657674 0 0 0 255 
0.0713828 1 -0.678335 0 0 0 255 
0.921201 1 -0.0592364 0 0 0 255 
0.473128 1 0.130406 0 0 0 255 
0.651662 1 -0.219703 0 0 0 255 
-0.911008 1 0.373577 0 0 0 255 
-0.442 1 0.324259 0 0 0 255 
0.33964 1 0.724784 0 0 0 255 
0.461165 1 0.985778 0 0 0 255 
0.797906 1 -0.801691 0 0 0 255 
-0.729972 1 0.0364696 0 0 0 255 
0.122166 1 -0.110874 0 0 0 255 
-0.422651 1 0.826106 0 0 0 255 
-0.626392 1 0.121921 0 0 0 255 
0.674306 1 -0.94055 0 0 0 255 
0.255593 1 -0.102206 0 0 0 255 
-0.153356 1 -0.95941 0 0 0 255 
-0.121311 1 0.32487 0 0 0 255 
0.680288 1 0.201086 0 0 0 255 
-0.121189 1 -0.946287 0 0 0 255 
0.997681 1 -0.450423 0 0 0 255 
0.342998 1 -0.148656 0 0 0 255 
0.221534 1 -0.850276 0 0 0 255 
0.284341 1 -0.409955 0 0 0 255 
-0.327982 1 0.61272 0 0 0 255 
-0.402142 1 0.356731 0 0 0 255 
-0.211829 1 -0.872555 0 0 0 255 
0.77752 1 0.341411 0 0 0 255 
0.786981 1 -0.00869778 0 0 0 255 
0.426923 1 -0.0945769 0 0 0 255 
-0.927244 1 -0.797845 0 0 0 255 
-0.990844 1 -0.00314341 0 0 0 255 
0.042085 1 0.677236 0 0 0 255 
0.595264 1 0.132481 0 0 0 255 
0.0417188 1 0.323344 0 0 0 255 
0.843074 1 -0.252113 0 0 0 255 
-0.616321 1 -0.24955 0 0 0 255 
-0.679189 1 -0.919614 0 0 0 255 
-0.254982 1 0.14243 0 0 0 255 
-0.17954 1 -0.857112 0 0 0 255 
0.23838 1 -0.0718101 0 0 0 255 
-0.250954 1 0.0249947 0 0 0 255 
0.17716 1 0.681326 0 0 0 255 
-0.713981 1 -0.0383007 0 0 0 255 
0.328776 1 0.367901 0 0 0 255 
0.99414 1 -0.398724 0 0 0 255 
-0.499435 1 -0.0897549 0 0 0 255 
-0.76458 1 -0.0786462 0 0 0 255 
0.883724 1 0.286538 0 0 0 255 
0.309 1 -0.456832 0 0 0 255 
-0.0542924 1 -0.700735 0 0 0 255 
0.948302 1 -0.972289 0 0 0 255 
0.055208 1 -0.0409864 0 0 0 255 
0.947447 1 -0.651296 0 0 0 255 
0.69866 1 0.404401 0 0 0 255 
-0.530931 1 0.382733 0 0 0 255 
-0.644215 1 0.657826 0 0 0 255 
0.278848 1 0.183508 0 0 0 255 
-0.910031 1 0.551012 0 0 0 255 
0.997925 1 0.262001 0 0 0 255 
0.926756 1 0.09653 0 0 0 255 
-0.279214 1 -0.664724 0 0 0 255 
0.396954 1 0.678396 0 0 0 255 
